# .PCD v0.7 - Point Cloud Data file format
VERSION 0.7
FIELDS x y z
SIZE 4 4 4
TYPE F F F
COUNT 1 1 1
WIDTH 1604
HEIGHT 1
VIEWPOINT 0 0 0 1 0 0 0
POINTS 1604
DATA ascii
0.38539118 -1.75 6.2556353
0.69774455 -1.75 6.2528238
-2.9000001 -1.7073233 6.2541656
-2.9000001 -1.4746672 6.2513614
-2.9000001 -1.363265 6.2549262
-2.9000001 -1.2951437 6.2589936
2.9000001 -1.016572 6.2587733
-2.9000001 -0.72093713 6.254333
2.9000003 -0.69311625 6.2586579
-2.0915046 -0.25 6.2561274
-1.8255581 -0.25 6.2532797
1.4689318 -0.25 6.2545595
2.1318018 -0.25 6.2584758
2.3833766 -0.25 6.2569246
2.4050798 -0.25 6.2532206
-1.4221246 0.44432104 6.25599
1.4212306 0.77478278 6.2599726
1.4230448 1.0289878 6.2518911
-1.4219769 1.1818765 6.2566485
-0.805323 1.75 6.2546496
-0.47877061 1.75 6.2507081
0.072455339 1.75 6.2582545
0.22019407 1.75 6.2527943
0.52410501 1.75 6.2521091
0.65924931 1.75 6.2508373
1.1352513 1.75 6.256742
1.2366873 1.75 6.2547164
-0.66815633 -4.4499998 6.2672982
1.6716952 -4.4499998 6.2643085
1.8795813 -4.4499998 6.263432
2.0470152 -4.4499998 6.2681775
-1.4180789 -4.372921 6.2697301
-1.4204499 -4.3300967 6.2616191
-1.419167 -3.979069 6.2660074
1.4809779 -3.8439176 6.2665033
1.4794228 -3.4797635 6.2611828
1.4793596 -3.3728998 6.2609668
-0.41902143 -3.0715926 6.2665052
-0.41992471 -3.0657723 6.2634149
2.4807253 -2.937361 6.2656388
-1.4196837 -2.7406652 6.2642393
1.47954 -2.7248399 6.2615838
-1.4184523 -2.570096 6.2684526
2.4810903 -2.545907 6.2668877
-0.42036673 -2.4856756 6.2619033
2.4793386 -2.4464076 6.2608943
2.4801102 -2.412617 6.263535
2.4807642 -2.3792007 6.2657714
-1.4194245 -2.3651285 6.2651267
2.4808824 -2.0087817 6.2661767
-1.4208961 -1.8674819 6.2600923
-2.8951628 -1.75 6.2678499
-2.2484021 -1.75 6.2675037
-1.8952869 -1.75 6.2627959
-1.652477 -1.75 6.2663965
0.61810458 -1.75 6.2652583
-2.9000001 -1.7237058 6.2688398
-2.9000001 -1.5031483 6.265511
-2.9000001 -1.4729894 6.2665863
2.9000001 -1.2291762 6.2648187
-2.9000001 -1.1100098 6.2688251
-2.9000001 -0.92872798 6.2655892
2.9000001 -0.68572932 6.2694154
2.9000001 -0.64767551 6.2622504
2.9000001 -0.52890861 6.2627335
-2.6310437 -0.25 6.2682104
-2.5491214 -0.25 6.2618504
2.1345778 -0.25 6.2632866
1.420184 -0.18569465 6.2646351
-1.4197568 0.16260481 6.2665386
1.4212223 0.36379045 6.2600093
-1.4190555 0.77411342 6.2696619
-1.4202956 1.0264354 6.2641377
1.4193498 1.1998729 6.2683506
-0.99733835 1.75 6.2606955
-0.72871393 1.75 6.2656503
-0.24382627 1.75 6.2634645
-1.152632 -4.4499998 6.2756891
2.212991 -4.4499998 6.2789803
1.4845215 -4.4020524 6.278626
-1.41681 -4.3928499 6.2740707
1.4849104 -4.2859411 6.2799563
-0.41566145 -4.2090101 6.2780004
-1.4158821 -4.1912365 6.2772455
1.4825169 -4.1997051 6.2717681
1.4825786 -4.130239 6.2719793
-1.4176934 -4.0229611 6.2710495
2.4829645 -3.3174582 6.2732992
1.4849082 -3.2783058 6.2799492
1.4829854 -3.2524924 6.2733707
-1.4155658 -3.1517153 6.278327
1.4842489 -3.1058495 6.2776937
2.4832406 -3.0688512 6.2742438
-1.4171882 -2.8326783 6.2727771
1.4827155 -2.4282072 6.2724476
2.4846764 -2.363167 6.2791553
1.4835291 -2.2345929 6.2752314
2.4820895 -2.2010546 6.2703056
-1.4151664 -1.9915143 6.2796941
1.4837838 -1.8654848 6.2761025
2.484576 -1.8319179 6.2788119
-2.7276549 -1.75 6.2701473
-2.091078 -1.75 6.2749677
-1.9286466 -1.75 6.2754245
0.86574322 -1.75 6.2759204
1.1447875 -1.75 6.2719169
2.7275872 -1.75 6.2732797
-2.9000001 -1.437327 6.2755919
-2.9000001 -1.4155402 6.2704849
2.9000001 -1.4155477 6.2769961
-2.9000001 -1.3138044 6.272151
2.9000001 -1.1518321 6.2774115
2.9000001 -1.138212 6.2750192
2.9000001 -0.7518878 6.2753224
2.9000001 -0.50995249 6.275032
2.9000001 -0.31034875 6.2738657
-2.8158298 -0.25 6.2739663
-2.1236746 -0.25 6.2756453
-1.8253568 -0.25 6.2734799
1.9244356 -0.25 6.2762666
2.3194304 -0.25 6.2753983
-1.4179069 -0.032830715 6.2747784
-1.4184973 1.1735308 6.2721486
-1.3843476 1.75 6.2715139
-0.86343372 1.75 6.2727509
0.32981288 1.75 6.2726274
0.8274309 1.75 6.279418
0.89231539 1.75 6.2710104
-1.3889437 -4.4499998 6.2864122
-0.58911836 -4.4499998 6.2893658
2.2779756 -4.4499998 6.2818508
2.2845511 -4.4499998 6.2826304
-0.41396567 -4.4141192 6.2838016
-1.4143198 -4.3897486 6.2825894
-0.41288754 -4.3143091 6.2874899
1.4860457 -4.3113141 6.2838402
2.4872646 -4.2546968 6.2880106
2.4868019 -4.1047421 6.2864265
1.485462 -3.9071565 6.2818432
-0.41287655 -3.6132758 6.2875276
-0.41455933 -3.5899143 6.2817707
1.4853088 -3.3721254 6.2813191
1.4858783 -3.2181199 6.283268
-0.41296297 -3.161617 6.2872319
2.486784 -3.1517107 6.2863655
1.4874678 -3.0487421 6.2887058
-1.4131889 -2.9703145 6.2864585
2.4853983 -2.9135265 6.2816257
-1.4146779 -2.7574155 6.2813654
1.4853857 -2.6527059 6.2815824
-0.41488174 -2.6310885 6.2806678
-2.4104249 -1.75 6.2855072
-1.5856611 -1.75 6.2821121
-0.069026478 -1.75 6.2802591
0.45717618 -1.75 6.2877321
0.50904727 -1.75 6.2883825
0.78014272 -1.75 6.2818246
0.80813998 -1.75 6.2839375
0.94618464 -1.75 6.2810764
1.027209 -1.75 6.2886248
1.3534871 -1.75 6.2832799
-2.9000001 -1.1188221 6.282968
2.9000001 -0.83069766 6.2891216
-2.4266088 -0.25 6.2834239
-2.2419229 -0.25 6.2885685
1.5090047 -0.25 6.2828159
1.672515 -0.25 6.2841444
2.7915888 -0.25 6.2862277
2.8695157 -0.25 6.2831478
1.4157336 -0.20684329 6.2844596
1.4156787 -0.18723589 6.2847037
-1.4152492 -0.13586402 6.2866168
1.4163547 0.06095352 6.281693
-1.416472 0.27500439 6.2811699
1.4148779 0.5217123 6.2882714
1.4160359 0.66361439 6.2831125
-1.41449 0.90714455 6.289999
1.4148716 0.99134254 6.2882996
-1.4161741 1.3173001 6.2824974
-1.4162774 1.4372457 6.2820368
1.4159256 1.5016344 6.2836046
1.414638 1.5614216 6.2893395
1.4149958 1.5796096 6.287746
-1.4166343 1.7379761 6.280447
-1.2221477 1.75 6.2805409
-1.2146622 1.75 6.2836471
-1.1885544 1.75 6.2830634
-1.0293634 1.75 6.2838635
-0.3103466 1.75 6.289783
0.98034447 1.75 6.2834201
1.0976143 1.75 6.2865119
1.2759666 1.75 6.2820807
1.4075469 1.75 6.283288
-0.81090379 -4.4499998 6.2942286
-0.4584721 -4.4499998 6.2933121
2.3459723 -4.4499998 6.2941771
2.3975019 -4.4499998 6.2921886
-1.4098151 -4.1203599 6.2980008
1.4890215 -4.0931458 6.2940211
2.4897099 -4.0695868 6.2963753
1.4888167 -3.9711421 6.2933207
1.4905424 -3.9665804 6.2992234
2.4900494 -3.8719163 6.2975378
-1.411423 -3.8270659 6.2925
-1.4118228 -3.7008336 6.2911325
-0.41035157 -3.5759037 6.2961655
1.4904994 -3.5095115 6.299077
1.4884818 -3.4339759 6.2921748
1.4904734 -3.3571401 6.2989879
1.4895768 -3.221941 6.2959204
-0.4118751 -3.2126684 6.2909536
-1.4105352 -3.0201049 6.2955379
-1.4095967 -3.0169377 6.2987485
1.4886906 -2.3859539 6.2928891
2.4888937 -1.7859234 6.2935843
-1.6577911 -1.75 6.2976875
0.40379477 -1.75 6.2976255
0.50008577 -1.75 6.2986169
2.5777996 -1.75 6.2941566
2.9000001 -1.6391863 6.2919941
-2.9000001 -1.5699986 6.2945976
-2.9000001 -1.4867917 6.2975602
2.9000001 -1.4517359 6.2996974
-2.9000001 -1.4022888 6.2952538
-2.9000001 -1.1955022 6.2940507
-2.9000001 -0.96691138 6.2932849
-2.9000001 -0.92471218 6.2930055
2.9000001 -0.66313332 6.2944508
-2.557035 -0.25 6.2954102
-2.5263352 -0.25 6.2934794
-2.4557779 -0.25 6.2968802
-1.4712182 -0.25 6.2992997
2.608674 -0.25 6.2951636
-1.4128335 0.19194841 6.2973785
1.4143625 1.6755979 6.2905674
-0.68350869 1.75 6.2956758
-0.20873033 1.75 6.2938662
0.18068944 1.75 6.2961121
0.79897612 1.75 6.2900128
1.0971326 1.75 6.296011
-1.3186973 -4.4499998 6.3049827
-1.2251377 -4.4499998 6.3015456
-1.1116141 -4.4499998 6.3094549
-0.82677442 -4.4499998 6.309689
-0.78584296 -4.4499998 6.3030148
-0.44593331 -4.4499998 6.3040838
2.4922614 -4.4242964 6.3051047
-1.4079366 -4.249886 6.3044276
2.4927731 -4.0729246 6.3068542
-1.4063723 -3.9383585 6.3097787
-0.40793946 -3.6969957 6.3044176
2.4908288 -3.5373552 6.3002033
-1.4066043 -3.4605694 6.3089852
2.4935317 -3.3175321 6.3094497
-1.4086208 -3.2585714 6.3020868
-1.4086661 -3.2189684 6.3019319
-0.40872043 -3.1845884 6.3017454
1.4914527 -3.1636934 6.3023381
-0.40833607 -2.9882483 6.3030601
2.4910262 -2.9152024 6.300878
1.4933091 -2.8658602 6.3086891
-0.4077346 -2.5081522 6.3051176
-1.4074187 -2.4430487 6.3061991
-0.40714729 -2.4261312 6.3071275
-0.40909031 -2.2689362 6.3004808
-1.5457866 -1.75 6.302227
-1.4750414 -1.75 6.3016834
-0.20842801 -1.75 6.3094835
0.97750938 -1.75 6.3075433
-2.9000001 -0.94768947 6.3007231
2.9000001 -0.87547839 6.3069663
-2.9000001 -0.49171248 6.301003
2.9000001 -0.45011348 6.3040829
-2.5850697 -0.25 6.3047867
-2.5091643 -0.25 6.3041124
-1.4122075 -0.081803679 6.3001661
1.4105489 0.050331898 6.3075552
1.4115927 0.65046114 6.3029056
1.4107863 0.80398905 6.3064985
1.4113334 0.81436342 6.3040605
-1.4118086 1.246075 6.3019433
1.4111067 1.3355774 6.3050699
-1.4109488 1.3522437 6.3057737
-1.4105501 1.6231909 6.3075495
1.4117323 1.7487473 6.3022833
-1.2588172 1.75 6.3020163
-0.089049339 1.75 6.3074155
-0.029025732 1.75 6.3081002
2.4961319 -4.073432 6.318346
-1.4041967 -4.0023527 6.3172216
-1.4035869 -3.9330213 6.3193083
-0.40484643 -3.9054217 6.3149991
-0.40350828 -3.5658114 6.3195767
-1.4058788 -3.305656 6.3114672
-0.40502003 -3.22486 6.314405
2.4951184 -2.9715965 6.314878
-0.40583566 -2.6783962 6.3116145
-1.4048771 -2.4997423 6.3148942
-1.4036951 -2.3896623 6.3189378
1.4943664 -2.3144853 6.3123059
-1.4056088 -2.1088557 6.3123908
-1.4045756 -2.0315275 6.3159251
1.4957336 -1.9922625 6.3169832
-2.0995896 -1.75 6.3155546
0.031616118 -1.75 6.3134346
0.84299445 -1.75 6.3112941
1.1321281 -1.75 6.3127871
2.7166395 -1.75 6.3124776
2.9000001 -1.522048 6.3152738
2.9000001 -0.69756126 6.3165793
-1.8022667 -0.25 6.3173943
1.7047305 -0.25 6.3124385
1.9104477 -0.25 6.316052
2.2090719 -0.25 6.315887
2.3793366 -0.25 6.3100386
1.4095298 0.40711546 6.3120947
-1.4092621 0.45667374 6.3132873
-1.4090711 0.46095741 6.3141384
-1.408098 0.49228251 6.3184729
-1.4088308 0.67982864 6.3152084
-1.4078701 0.70396245 6.3194885
-1.4098749 0.83347869 6.3105578
-1.4082032 1.10676 6.3180037
1.4090432 1.197809 6.3142624
-0.85284352 1.75 6.3193393
0.017798146 1.75 6.3132334
-1.0029672 -4.4499998 6.3298502
-0.8590793 -4.4499998 6.3250008
2.0412686 -4.4499998 6.3291335
-1.4012566 -4.3171048 6.3272796
-0.40141249 -4.1025128 6.3267469
1.4968129 -4.0161524 6.3206758
-1.4014833 -3.8857281 6.3265042
-1.4006898 -3.8642159 6.3292189
-0.40264952 -3.8541982 6.3225145
2.4994659 -3.676265 6.3297515
2.4970698 -3.244179 6.3215551
1.4970307 -3.1103406 6.3214207
-1.4019586 -2.9398999 6.3248787
2.4995239 -2.8190835 6.3299499
-1.4012316 -2.5835164 6.3273654
2.4983537 -2.5428212 6.3259463
-1.4014314 -2.5241542 6.3266816
1.4968935 -2.5166206 6.3209515
-1.4020596 -2.3853028 6.3245325
-1.4033165 -2.1623101 6.3202329
1.4989612 -2.1673002 6.3280253
2.4984984 -2.1195629 6.3264427
-1.402076 -2.0714843 6.3244772
2.4966631 -1.8413079 6.3201618
2.497277 -1.8358769 6.3222632
-2.2270842 -1.75 6.3292618
-1.7155364 -1.75 6.3286409
-0.31586659 -1.75 6.3245239
0.39399892 -1.75 6.329936
0.40920806 -1.75 6.3208809
2.5152392 -1.75 6.323009
2.9000001 -1.4817221 6.3207154
-2.9000001 -0.92270237 6.3225217
-2.9000001 -0.63957024 6.3247781
-2.9000001 -0.47133955 6.3272891
1.8294573 -0.25 6.3297324
1.8353534 -0.25 6.3297462
1.9534613 -0.25 6.3233647
-1.4077299 0.15660703 6.3201122
-1.4073269 0.18790781 6.321908
1.4076887 0.24722944 6.3202958
1.4062122 0.43189701 6.3268728
1.4072843 0.49991176 6.3220973
1.4073274 0.66439569 6.3219051
-1.4055415 0.69759393 6.3298602
-1.4063401 0.76541376 6.326304
1.4075209 0.94450921 6.3210435
-1.4058975 1.2909095 6.3282752
1.4062538 1.4040895 6.3266869
1.4064255 1.6527907 6.325922
-1.4070694 1.6919616 6.3230543
-0.61995018 1.75 6.3251252
-0.37617671 1.75 6.3211207
-0.71796268 -4.4499998 6.3332405
1.960089 -4.4499998 6.3398938
2.2857141 -4.4499998 6.3336596
-0.39865682 -3.9320223 6.336174
-1.3983042 -3.8592875 6.3373804
1.5005407 -3.1685309 6.3334289
2.5010197 -3.0649045 6.3350663
2.5004992 -3.0273056 6.3332863
-1.4000249 -2.8658214 6.3314939
1.4997278 -2.8586881 6.3306479
-1.3985457 -2.7538459 6.3365541
-1.4000709 -2.7072113 6.3313365
-0.40010616 -2.6137881 6.3312154
1.5018651 -2.6123111 6.3379598
-1.3985302 -2.4608588 6.3366075
1.5023534 -2.4393823 6.3396297
2.5000708 -2.3579922 6.3318205
-0.39841184 -2.349658 6.3370118
1.5014096 -1.9382519 6.3364015
2.5017352 -1.9369112 6.3375144
-1.3983154 -1.7661662 6.3373418
-1.9878975 -1.75 6.3309731
-0.36026224 -1.75 6.3344455
-0.13331965 -1.75 6.3336406
1.4409612 -1.75 6.3396306
2.9000001 -1.331733 6.3321214
2.9000001 -1.2290192 6.3350244
-2.362566 -0.25 6.3315649
-1.6352472 -0.25 6.3324575
-1.5327638 -0.25 6.3384032
-1.4511799 -0.25 6.338129
1.7814463 -0.25 6.3332806
1.8907821 -0.25 6.3306794
1.4049126 -0.15351571 6.3326621
1.405033 0.61728501 6.3321257
-1.4042958 0.67972529 6.3354096
1.4049031 1.3165387 6.3327045
-0.71118134 1.75 6.339817
-0.15257242 1.75 6.334178
0.21246494 1.75 6.3347673
0.34276664 1.75 6.3312726
0.46954131 1.75 6.334075
0.78380847 1.75 6.3382258
1.3275461 1.75 6.3379159
-0.399299 -4.4499998 6.3496442
1.5344955 -4.4499998 6.3401256
1.5510092 -4.4499998 6.3478241
1.885221 -4.4499998 6.3418574
1.5043929 -3.8315022 6.3466077
1.5053012 -3.785599 6.3497148
-0.39753565 -3.5001433 6.3400097
-1.3969865 -3.4722247 6.3418889
2.5045986 -3.2516491 6.3473105
-1.3973179 -3.0401356 6.3407545
-1.3969622 -2.7365994 6.3419714
1.5040528 -2.7232656 6.3454437
-0.39696679 -2.7013061 6.3419552
2.5044634 -2.6668429 6.3468475
1.5028806 -2.4190104 6.3414335
2.5026054 -2.165895 6.3404927
1.5030566 -1.8061284 6.3420358
-2.4994698 -1.75 6.346858
-1.8948569 -1.75 6.3457146
0.95978141 -1.75 6.3433886
-2.9000001 -1.6262614 6.3409357
2.9000001 -1.6138663 6.3473029
-2.9000001 -0.66123867 6.3492389
-2.9000001 -0.26103079 6.3441
-1.7329795 -0.25 6.3488345
-1.5881867 -0.25 6.3472047
-1.4326572 -0.25 6.3449383
2.1905136 -0.25 6.3460078
-1.402764 0.2796768 6.3422332
1.4017738 0.45254406 6.3466439
-1.4021523 0.68082511 6.3449583
-1.4026752 0.83281517 6.3426285
-1.4022332 1.2212961 6.3445973
1.4024432 1.3503633 6.3436623
-1.4013211 1.6282662 6.3486605
-1.0363671 1.75 6.3499231
-1.0274063 1.75 6.3440585
-0.72208935 1.75 6.345602
-0.01314221 1.75 6.3425941
0.14436474 1.75 6.3448567
0.49873641 1.75 6.347065
0.9641118 1.75 6.3466234
1.0115708 1.75 6.3498631
1.0517225 1.75 6.3469076
1.6833637 -4.4499998 6.3525929
2.4238551 -4.4499998 6.3544579
-0.39211634 -4.392662 6.3585491
-0.39362064 -4.2150984 6.3534026
-1.3933915 -4.2044845 6.3541865
-0.39202282 -4.122591 6.3588691
-1.3923008 -3.5185387 6.3579183
-1.3919209 -3.4626005 6.3592181
2.5057352 -3.2102406 6.3511992
-0.39443207 -2.9097774 6.3506269
-1.3935556 -2.8147039 6.3536253
1.506469 -2.7696102 6.3537102
-1.3921497 -2.5108283 6.3584356
-1.3944615 -2.2716968 6.3505263
-0.39294177 -2.1498868 6.3557258
-1.3928607 -2.1189015 6.3560023
-1.3929181 -2.0253084 6.3558064
2.5078504 -1.9553404 6.3584361
-1.3939698 -1.9397465 6.3522091
2.5072606 -1.9267418 6.3564172
1.5072867 -1.7756022 6.3565068
-2.3386087 -1.75 6.3541708
-2.1445405 -1.75 6.3578849
-1.972464 -1.75 6.3513608
-0.051700752 -1.75 6.35076
0.43562281 -1.75 6.3568916
0.71004701 -1.75 6.3514924
2.6307771 -1.75 6.3524251
2.6594038 -1.75 6.358614
2.9000001 -1.6517394 6.3515096
2.9000001 -1.4097217 6.3559752
2.9000001 -1.3466558 6.3548617
2.9000001 -1.0675108 6.3553371
-2.9000001 -0.78109848 6.356174
2.9000001 -0.43000478 6.3560286
2.9000001 -0.2992273 6.3561268
-2.7133279 -0.25 6.3559856
-1.7940279 -0.25 6.3546381
1.6377187 -0.25 6.3563313
1.6794869 -0.25 6.3577967
2.0023205 -0.25 6.3517818
1.4003921 0.28306976 6.3527989
-1.4004184 0.43838239 6.3526821
-1.4005214 0.78036666 6.3522224
1.3997189 1.2914048 6.3557973
-1.4009205 1.5210567 6.3504448
-1.1698687 1.75 6.3569145
-0.1352405 1.75 6.3546133
-0.10987259 1.75 6.3502769
0.74019831 1.75 6.3599253
0.9455902 1.75 6.3565526
-1.1991614 -4.4499998 6.3667483
-0.56203473 -4.4499998 6.3610349
-0.50205314 -4.4499998 6.3653193
-0.48571396 -4.4499998 6.3600984
1.5825047 -4.4499998 6.3688526
1.6752237 -4.4499998 6.3655806
-0.39039382 -4.4283872 6.3644419
1.5112041 -4.3148623 6.3699088
-1.3905797 -4.2654481 6.3638062
-0.3899765 -3.9476094 6.36587
1.5092132 -3.8889244 6.3630981
2.5108726 -3.8620486 6.3687744
-0.38905886 -3.7073255 6.369009
2.508702 -3.6158061 6.3613482
1.5092251 -3.5862863 6.3631387
1.5102837 -3.2926145 6.3667598
-1.3890224 -3.2116101 6.3691339
1.5102643 -3.0271349 6.3666935
1.5106078 -2.9613338 6.3678689
-0.38933927 -2.7865181 6.3680501
1.509863 -2.7312934 6.3653207
-0.3894181 -2.57406 6.3677802
-0.39109111 -2.5145049 6.3620567
1.5089716 -2.3547091 6.3622708
1.5104123 -2.2334356 6.3671999
-1.8294414 -1.75 6.3666925
-1.7516174 -1.75 6.3638835
-1.7260261 -1.75 6.3633089
0.34405726 -1.75 6.3660793
0.89024001 -1.75 6.3634305
0.94108844 -1.75 6.3643827
0.9572717 -1.75 6.3679147
1.1600717 -1.75 6.3662601
1.2982569 -1.75 6.3638067
-2.9000001 -1.6598368 6.3668942
-2.9000001 -1.5186883 6.3633676
-2.9000001 -1.4222313 6.3690839
-2.9000001 -1.330286 6.3640013
-2.9000001 -0.81319308 6.3659744
-2.9000001 -0.63496453 6.362298
-2.9000001 -0.60589349 6.3694634
-2.9000001 -0.57542044 6.3628602
2.9000001 -0.4437803 6.3680487
-2.9000001 -0.43361714 6.3688521
-2.6061561 -0.25 6.3608694
-2.1047461 -0.25 6.3687606
1.5290748 -0.25 6.3640089
2.2073064 -0.25 6.3611341
1.3974577 1.6518632 6.3658705
-0.50979376 1.75 6.3647194
-0.16466272 1.75 6.362452
0.30574712 1.75 6.3692455
0.37861231 1.75 6.363255
0.66295421 1.75 6.3611674
2.0794401 -4.4499998 6.3785167
-0.38818017 -4.4269023 6.372015
1.512778 -4.3390369 6.3752933
-0.38644609 -4.3117137 6.3779473
-1.3859997 -4.2498674 6.3794746
-1.3873215 -4.1667428 6.3749533
-1.3868951 -4.1431451 6.3764119
-1.3860095 -4.0715451 6.3794417
-0.38860914 -4.0389738 6.3705473
-1.3871796 -4.0180473 6.3754382
-0.38717642 -3.986593 6.3754492
2.5136626 -3.801338 6.3783193
-1.3866308 -3.7040811 6.377316
-1.3867507 -3.6017921 6.3769054
1.513073 -3.2421441 6.3763018
1.5115883 -2.9755495 6.371223
-0.38651222 -2.7863564 6.3777213
2.5132043 -2.5764978 6.3767509
-1.3875642 -2.5315752 6.3741226
-1.3861153 -2.5194368 6.3790789
-0.38704881 -2.3134577 6.3758855
2.5130401 -2.3038542 6.3761892
1.5120072 -2.1926699 6.3726563
-1.3876234 -2.0868049 6.3739195
-2.3601234 -1.75 6.3776293
-1.7014511 -1.75 6.3739009
-1.694026 -1.75 6.3750029
-0.0099631995 -1.75 6.3711948
0.63309836 -1.75 6.378839
0.72471654 -1.75 6.3715215
-2.9000001 -1.3192787 6.372951
2.9000001 -0.49178264 6.3780241
-2.0976508 -0.25 6.3789997
-1.8901374 -0.25 6.3730841
1.5698297 -0.25 6.3726959
2.340482 -0.25 6.374619
1.3954175 -0.19758397 6.3749585
1.3960791 -0.1500224 6.3720117
1.3958931 0.81763536 6.3728404
-1.256222 1.75 6.3765178
-1.0392094 1.75 6.3776541
-0.88790739 1.75 6.3718448
-0.58842993 1.75 6.3792124
-1.1341715 -4.4499998 6.3805966
1.5944154 -4.4499998 6.3859944
1.9110125 -4.4499998 6.3859563
2.1350775 -4.4499998 6.3811412
2.2611384 -4.4499998 6.3896446
2.2778406 -4.4499998 6.3879032
-0.38356698 -4.3870468 6.3877969
-1.3833556 -4.3773499 6.3885198
-0.3851153 -4.2731824 6.3825002
-1.3832971 -3.909035 6.3887205
-0.38313425 -3.6917636 6.3892775
1.5146567 -3.5391171 6.3817201
2.5145402 -3.4508548 6.3813219
-1.3834051 -2.9272721 6.388351
2.5157695 -2.8447094 6.3855271
-1.3839309 -2.830487 6.3865519
2.5155013 -2.6372921 6.3846092
-1.3855858 -2.6290963 6.3808913
1.5142063 -2.5898368 6.3801794
2.5158563 -2.4526603 6.3858232
-0.383616 -2.4176834 6.3876295
-0.38542047 -2.0022781 6.3814564
-1.3856807 -1.973876 6.3805661
-1.3856537 -1.9513842 6.3806581
-2.7990904 -1.75 6.3837771
-2.5565102 -1.75 6.3811197
-2.0974643 -1.75 6.3836956
-2.0861661 -1.75 6.3805294
-1.7989378 -1.75 6.3893185
-1.456298 -1.75 6.3871098
-0.19705027 -1.75 6.3811584
0.10023504 -1.75 6.3814697
2.8948448 -1.75 6.3867154
2.9000001 -1.7074785 6.3874779
-2.9000001 -1.3141506 6.3856049
2.9000001 -0.94947577 6.3818746
2.9000001 -0.86697423 6.3818631
-2.9000001 -0.74228668 6.3888464
2.9000001 -0.53965312 6.3878303
-2.8509622 -0.25 6.3816352
-2.0621743 -0.25 6.3859577
2.1775086 -0.25 6.3854532
2.4653192 -0.25 6.3804421
2.6458032 -0.25 6.386827
1.3925316 0.18511185 6.3878136
-1.3941191 0.45184946 6.3807416
1.3931893 0.8729347 6.3848834
1.3937603 1.062004 6.3823404
-1.3926499 1.0960264 6.3872871
1.3924147 1.3911445 6.3883348
-1.393919 1.5414536 6.3816338
-1.2260309 1.75 6.3816142
-0.025730371 1.75 6.3804393
0.18503214 1.75 6.3862338
1.1435137 1.75 6.3894763
1.3307391 1.75 6.3843527
-1.3317618 -4.4499998 6.3902483
-1.1769279 -4.4499998 6.3934364
-1.0634338 -4.4499998 6.3997798
-0.99868441 -4.4499998 6.3989224
1.689357 -4.4499998 6.3914504
1.7531214 -4.4499998 6.3929386
2.3045728 -4.4499998 6.3952184
-1.3820186 -4.2563925 6.3930941
1.5195782 -3.8809209 6.3985577
1.5178977 -3.6405938 6.392808
-1.3813413 -3.5689762 6.395411
-1.3827834 -3.3544748 6.3904781
-1.3827071 -3.02981 6.3907385
2.5178132 -2.9955924 6.3925185
1.5187541 -2.890135 6.3957376
-1.3806541 -2.7382662 6.3977623
-0.38040149 -2.1081295 6.3986259
-0.3815982 -1.8050083 6.3945322
-1.9998815 -1.75 6.3971467
-1.7107291 -1.75 6.394176
-1.4420843 -1.75 6.3948832
-0.3153424 -1.75 6.3971395
0.91858518 -1.75 6.3994575
0.94380623 -1.75 6.3922892
-2.9000001 -1.7210029 6.3960199
2.9000001 -1.4840137 6.3948736
-1.9338566 -0.25 6.3906183
-1.4538767 -0.25 6.3930359
1.395161 -0.24960437 6.3918772
1.9089845 -0.25 6.3909125
2.5552731 -0.25 6.3975101
2.773196 -0.25 6.3904161
-1.3914227 -0.090496659 6.3927526
1.3916399 0.59858423 6.3917861
1.3906368 1.1854209 6.3962541
-0.76332349 1.75 6.391747
-0.55944705 1.75 6.3988614
-0.24728709 1.75 6.3970885
0.70501828 1.75 6.3915362
-1.0744091 -4.4499998 6.4017019
1.6717007 -4.4499998 6.4038482
1.7265846 -4.4499998 6.4016285
2.0245514 -4.4499998 6.4075804
2.4921875 -4.4499998 6.4044285
1.5202433 -4.1479459 6.4008322
-1.3775141 -3.9561698 6.4085035
2.521677 -3.4323797 6.4057374
1.5204016 -3.2480347 6.4013743
2.5212827 -3.2219839 6.404388
2.520117 -2.8653452 6.4003997
-1.3776383 -2.8145502 6.4080791
1.5221742 -2.7511466 6.4074383
-0.37802526 -2.6003962 6.4067554
-1.3771399 -2.4790545 6.4097843
1.5223775 -2.284107 6.408133
1.522511 -2.1406672 6.4085898
1.5220578 -2.0491481 6.4070396
1.5228119 -1.8964216 6.4096193
-1.9434931 -1.75 6.4042406
-1.8979619 -1.75 6.4063878
-1.7644382 -1.75 6.4027977
-0.2203168 -1.75 6.4029422
0.081473552 -1.75 6.4074583
0.39567861 -1.75 6.40768
0.65483809 -1.75 6.4000759
1.3435631 -1.75 6.4031234
1.4288902 -1.75 6.4094577
-2.9000001 -1.5025176 6.4080334
2.9000001 -1.1699879 6.4033237
2.9000001 -0.88235497 6.4061284
-2.9000001 -0.67157173 6.408227
2.9000001 -0.31085595 6.4076028
-2.9000001 -0.26916423 6.4011874
1.406394 -0.25 6.4024115
1.4374013 -0.25 6.4083996
2.2532279 -0.25 6.4007044
2.6247144 -0.25 6.4027591
2.8463061 -0.25 6.4062386
1.3883779 1.3096066 6.4063163
1.3889698 1.4446193 6.4036798
-0.40678811 1.75 6.4087219
0.97385436 1.75 6.4023075
1.1794554 1.75 6.4091897
-1.0393648 -4.4499998 6.4115562
1.8257403 -4.4499998 6.4150043
-1.3757155 -4.2692437 6.4146576
2.5229526 -4.2210546 6.4101
-1.3747325 -4.0448074 6.4180207
2.5232019 -3.9322882 6.4109535
2.5233245 -3.8874898 6.4113722
-1.3768165 -3.7026405 6.4108911
1.5234506 -3.2767713 6.4118047
2.5245583 -2.7564917 6.4155931
1.5250632 -2.2924805 6.4173212
-2.2506585 -1.75 6.4144301
-2.0127842 -1.75 6.4156623
-1.665972 -1.75 6.4180732
-0.078044601 -1.75 6.4119277
0.85285658 -1.75 6.4115539
0.88629901 -1.75 6.4153185
0.9868806 -1.75 6.4173126
0.99583489 -1.75 6.4100447
2.9000001 -1.7198738 6.4100704
-2.9000003 -1.2838432 6.4156356
2.9000001 -1.2044914 6.4103408
-2.9000001 -0.66517764 6.4154329
-2.5911396 -0.25 6.4160347
1.7890408 -0.25 6.4108663
1.3855819 0.016553927 6.4187717
-1.3861485 0.066413879 6.4162483
1.3864945 0.11653608 6.4147062
1.3854545 0.28466862 6.4193392
1.3874284 0.34994948 6.4105463
1.3866373 0.56246608 6.4140706
-1.3866771 0.88607574 6.4138927
1.386245 0.88262546 6.4158177
-1.3865069 1.3111523 6.4146504
-0.35919032 1.75 6.4173679
-0.30080807 1.75 6.4129405
-0.28916326 1.75 6.4135394
-0.059448794 1.75 6.4173355
1.1789974 1.75 6.4134636
1.8083808 -4.4499998 6.4233284
2.3928685 -4.4499998 6.4227719
1.5280849 -4.4209132 6.4276586
1.5285447 -3.9633479 6.4292321
-1.3712366 -3.8821547 6.4299798
-0.37204617 -3.826443 6.4272103
-1.3715065 -3.591023 6.4290566
-1.3721397 -2.985393 6.4268904
1.5278248 -2.9869952 6.4267688
1.5280255 -2.9706719 6.4274554
2.5281367 -2.9747252 6.4278355
-0.37221831 -2.8987556 6.4266214
-0.37263528 -2.8066053 6.4251952
-1.3729659 -2.7987156 6.4240637
-1.3731904 -2.7489092 6.4232955
2.5280323 -2.6954005 6.4274783
-1.3733948 -2.6328461 6.422596
2.5285368 -2.6183059 6.429204
-0.37277165 -2.4954638 6.4247284
1.5273095 -2.3088908 6.4250059
1.5261697 -1.9652795 6.4211068
-1.3727151 -1.8551681 6.4249215
-2.8725221 -1.75 6.4274216
-2.2541726 -1.75 6.4277334
0.51904005 -1.75 6.425097
0.63508439 -1.75 6.4287133
0.73070443 -1.75 6.4281459
2.7601891 -1.75 6.4275651
2.9000001 -1.6257428 6.4295883
-2.9000001 -1.5145987 6.4205604
2.9000001 -1.2075455 6.4205441
-2.9000001 -0.4356063 6.420723
-2.9000001 -0.40624249 6.4231348
-2.3825405 -0.25 6.4297924
-1.7496601 -0.25 6.4221692
1.5827696 -0.25 6.422893
1.6304758 -0.25 6.4255095
2.2900882 -0.25 6.422977
1.3846315 -0.19290425 6.4230046
-1.3850871 -0.046211958 6.4209752
1.3848146 0.06919384 6.4221897
-1.3838539 0.35143852 6.4264693
1.3840295 0.76122802 6.4256868
1.3831532 0.88807422 6.4295902
-1.384897 0.93408215 6.4218225
1.3843334 1.5072677 6.4243331
-1.3842139 1.5308028 6.4248652
1.3841894 1.6488417 6.424974
-0.73398733 1.75 6.4253955
0.90800232 1.75 6.4215674
1.8255644 -4.4499998 6.4349346
2.1105907 -4.4499998 6.4325514
1.5299921 -4.0392027 6.4341831
1.5314519 -3.9414248 6.4391775
2.5300226 -3.8592219 6.4342871
1.5289667 -3.7776701 6.4306755
-0.36903533 -3.4556072 6.4375105
-0.36833647 -3.2162635 6.4399009
-1.3699642 -3.1829312 6.4343328
1.5300202 -3.1348047 6.4342799
1.5311195 -3.1106031 6.4380403
2.5296605 -3.0957198 6.4330482
-0.3712267 -2.6364951 6.4300137
1.5299433 -2.5883715 6.4340167
2.5294514 -2.5618541 6.432333
-0.37038559 -2.4008038 6.4328914
1.5308175 -2.3416233 6.437007
-1.3704239 -2.3105938 6.4327607
2.5290303 -2.3152122 6.4308929
-1.3708464 -2.1545963 6.4313149
1.5305772 -2.0356948 6.4361854
-0.37056535 -1.9632267 6.4322767
1.5299976 -1.8073288 6.4342022
-1.8425124 -1.75 6.4309959
-1.5014997 -1.75 6.4357696
-0.30664644 -1.75 6.4329109
-0.23874551 -1.75 6.4321156
0.57461077 -1.75 6.4329743
0.87952149 -1.75 6.4316535
1.4489622 -1.75 6.4343414
2.6531556 -1.75 6.4302034
2.7190938 -1.75 6.4347048
2.9000001 -1.7240479 6.4365559
-2.9000001 -1.6751964 6.4370108
-2.9000001 -1.4885762 6.4382415
2.9000001 -1.2039654 6.4346051
2.9000001 -1.0402356 6.4380822
-2.9000001 -0.99120522 6.4374647
-2.9000001 -0.97543436 6.4347482
-2.9000001 -0.25509307 6.4356565
-2.5289109 -0.25 6.4315863
1.5549122 -0.25 6.4385085
1.581147 -0.25 6.4355559
2.2344716 -0.25 6.4321804
2.7950709 -0.25 6.4369426
1.3826152 0.43194056 6.4319868
-1.3814061 0.4499619 6.4373732
-1.3818711 0.73086059 6.4353013
1.3829802 0.77934599 6.4303608
1.3822421 0.88154125 6.4336491
1.3819711 1.1410781 6.4348555
-1.3823195 1.5085101 6.4333038
-0.30116746 1.75 6.4343128
0.60960191 1.75 6.4349999
1.2206075 1.75 6.4354033
-1.194314 -4.4499998 6.4425616
-0.8976258 -4.4499998 6.4495287
-0.66469485 -4.4499998 6.448823
-0.39923003 -4.4499998 6.4409885
1.737869 -4.4499998 6.4460111
2.4002941 -4.4499998 6.4441276
2.5343328 -4.0758953 6.4490333
2.5329056 -4.0404167 6.4441509
2.5336561 -3.8596966 6.4467182
-0.3661451 -3.5900748 6.4473977
-0.36797556 -3.5365467 6.4411364
-1.3665679 -3.5073175 6.4459519
2.5330219 -3.4480212 6.4445486
-1.3657823 -3.2027924 6.4486399
-1.3674045 -3.0640538 6.44309
1.5317962 -2.8319099 6.4403553
1.5330129 -2.5492282 6.4445176
-1.3682064 -2.3148382 6.4403462
-0.36606231 -2.3199396 6.4476814
-1.3658872 -2.3078971 6.4482803
-1.3664162 -2.1057205 6.4464703
-0.36613235 -1.8648734 6.4474421
2.534014 -1.8627111 6.4479423
-2.6388428 -1.75 6.4425445
-2.5038743 -1.75 6.4445171
-2.4405353 -1.75 6.4455724
-2.2788482 -1.75 6.4430647
-2.1377728 -1.75 6.4485784
-2.0145311 -1.75 6.4471297
-1.8236471 -1.75 6.4409266
-1.7816734 -1.75 6.4452162
0.5897314 -1.75 6.4485164
1.0236648 -1.75 6.4416299
1.4631598 -1.75 6.4477167
2.6853859 -1.75 6.4481597
2.7537267 -1.75 6.443305
2.8318989 -1.75 6.4434123
2.9000001 -1.7165074 6.4425597
2.9000001 -0.98386246 6.4400015
-2.9000001 -0.95903987 6.4497108
-2.9000001 -0.76909506 6.4427042
2.9000001 -0.69909853 6.4474392
2.9000001 -0.33135873 6.4448586
-1.6054577 -0.25 6.4402552
-1.3792611 -0.24309051 6.4469275
1.687103 -0.25 6.4431586
2.3543234 -0.25 6.4405766
2.8309915 -0.25 6.4434347
-1.379524 0.072863936 6.4457564
-1.3801304 0.12300718 6.4430552
-1.3799686 0.38052499 6.4437757
-1.3788977 0.43947971 6.4485469
1.3790014 0.57668936 6.4480844
-1.3786188 0.63375926 6.4497886
-1.3807483 0.78332067 6.4403033
1.3793597 0.82737213 6.4464884
1.3799731 1.2009788 6.4437561
-1.3797526 1.3422427 6.4447379
-1.3797194 1.6835455 6.4448872
1.3805515 1.730068 6.4411802
-1.3747334 1.75 6.441546
-1.2870247 1.75 6.4488444
0.55208623 1.75 6.4448562
0.60545731 1.75 6.4418693
-0.57089412 -4.4499998 6.4585485
2.1029961 -4.4499998 6.4569941
2.433018 -4.4499998 6.4574633
-0.36370099 -4.4268785 6.4557595
2.5360982 -4.2377701 6.4550724
2.5360231 -3.8540487 6.4548159
-1.3643909 -3.7951453 6.4534001
-1.3627501 -3.6970732 6.459013
2.5362244 -3.6113763 6.4555039
-1.3639605 -3.5464675 6.4548721
2.5352883 -3.3978827 6.4523025
2.5360038 -3.070545 6.4547496
-1.3624789 -3.0118399 6.4599404
-0.36501342 -2.8824391 6.4512701
-0.36496699 -2.7466905 6.4514284
2.5352614 -2.7263191 6.4522099
-0.36328366 -2.488883 6.4571872
-1.3636483 -2.4390223 6.4559398
-0.36328867 -2.1543946 6.45717
1.5357286 -2.0604954 6.4538083
1.5371455 -1.9806528 6.4586558
-1.364589 -1.8363841 6.4527216
1.5361202 -1.8253714 6.4551477
-1.6316788 -1.75 6.4574533
0.91579521 -1.75 6.4546919
2.9000001 -1.6026149 6.4592295
-2.9000001 -1.1728218 6.4598837
-2.9000001 -0.32296979 6.4599977
2.9000001 -0.3232885 6.4558892
1.5308657 -0.25 6.4592009
2.4435639 -0.25 6.4550285
1.3774871 -0.18441069 6.4548306
-1.3774267 -0.13509095 6.4550996
-1.3776923 -0.011816263 6.4539161
1.3785286 0.34045142 6.4501905
-1.3784028 0.38079512 6.4507513
-1.3768908 0.47129047 6.4574866
-1.3782902 1.0286214 6.4512529
0.12291194 1.75 6.4515276
1.1814615 1.75 6.4513927
-1.1936797 -4.4499998 6.4610615
-1.1163901 -4.4499998 6.4625931
1.9006689 -4.4499998 6.4618959
2.1347103 -4.4499998 6.4629965
-1.3610973 -4.0720539 6.4646668
2.5384469 -4.0669289 6.4631071
-1.3603505 -3.9894419 6.4672222
1.5377383 -3.8266032 6.4606833
1.5392672 -3.648803 6.4659138
2.5393405 -3.6446097 6.4661646
1.5403147 -3.638804 6.4694977
2.5386219 -3.4521015 6.463706
2.5380216 -3.3868532 6.4616528
1.5397272 -3.2873535 6.4674878
-1.3608133 -3.0108535 6.4656382
-1.3608749 -2.9639144 6.4654274
1.537878 -2.8906825 6.4611616
-0.3600966 -2.8085568 6.4680905
-1.361378 -2.7739162 6.4637074
-1.3620309 -2.5966966 6.4614735
-0.36110032 -2.498872 6.4646568
-1.3597515 -2.4164617 6.4692707
-0.36154041 -2.3784921 6.463151
-1.3620462 -2.2578876 6.4614205
-0.36198324 -2.1727035 6.4616361
-0.36013597 -2.0797253 6.4679556
2.5380924 -2.0128758 6.461895
2.5392392 -2.0084565 6.465817
-2.7903357 -1.75 6.463882
-1.3884596 -1.75 6.4674869
-0.22778453 -1.75 6.4609981
0.62476617 -1.75 6.4653778
0.79094255 -1.75 6.4661908
1.1082407 -1.75 6.4663639
2.6932433 -1.75 6.4646187
2.7784362 -1.75 6.462326
-2.9000001 -1.4518414 6.4619851
2.9000001 -0.88228017 6.4688573
2.9000001 -0.41433138 6.4644642
-2.6524696 -0.25 6.4649825
-2.391516 -0.25 6.4661679
1.6434797 -0.25 6.4649982
1.9050187 -0.25 6.4622278
2.702862 -0.25 6.4685998
1.3762611 -0.025306799 6.4602914
1.37464 0.60116249 6.4675126
-1.3746666 1.1402748 6.4673944
-1.3745905 1.3222305 6.4677329
1.3746632 1.3889611 6.4674087
1.3756925 1.5665063 6.4628243
-0.54220456 1.75 6.4663029
-0.49248371 1.75 6.4607434
-0.046655182 1.75 6.4632473
0.94863713 1.75 6.4685645
1.3119515 1.75 6.4602156
-1.2089082 -4.4499998 6.4727459
-0.72105527 -4.4499998 6.471807
-0.6694088 -4.4499998 6.4700379
1.5693765 -4.4499998 6.473022
2.0697544 -4.4499998 6.4772062
1.5425938 -4.198575 6.4772944
1.5426979 -3.8981974 6.4776506
2.5421071 -3.8773191 6.4756289
1.5419819 -3.8565035 6.4752011
1.5414046 -3.7122231 6.4732261
-1.3586795 -3.3917768 6.4729381
1.5411881 -3.3552706 6.4724851
1.5406053 -3.2791798 6.4704919
2.5424325 -3.2651265 6.4767418
2.5420775 -3.2027063 6.4755278
-0.35782281 -2.9475198 6.4758687
-0.35671443 -2.8129802 6.479661
1.5421513 -2.613286 6.4757805
1.5430824 -2.2914898 6.4789658
1.5427955 -2.1391141 6.4779844
-2.2980669 -1.75 6.4764957
0.13739571 -1.75 6.4764309
0.93669575 -1.75 6.4747543
-2.9000001 -1.5690093 6.472496
-2.9000001 -1.4110497 6.472106
-2.9000001 -1.0194497 6.4752851
2.9000001 -0.89168584 6.472651
-1.5770105 -0.25 6.477612
1.9124219 -0.25 6.4784336
1.3734729 0.29313666 6.4727111
-1.3724337 0.43131363 6.4773412
1.3732395 0.83836293 6.4737511
-1.3728726 1.3953813 6.4753857
1.373831 1.6941975 6.4711161
-0.99343878 1.75 6.4757495
-0.48131692 1.75 6.4711084
0.45851412 1.75 6.4793825
1.0028728 1.75 6.4793057
1.7343032 -4.4499998 6.4852033
1.5445938 -4.0550499 6.4841366
-0.35378569 -3.7669973 6.4896803
-0.35426316 -3.2054186 6.4880471
2.5443978 -2.8639977 6.4834652
2.5452871 -2.8453593 6.4865079
-1.3543161 -2.7547696 6.4878659
2.5449214 -2.5758626 6.4852571
1.5447415 -2.3136904 6.484642
-0.35548261 -2.2673759 6.4838753
-0.35388795 -2.1275017 6.4893308
-1.3558149 -2.0052567 6.4827385
-2.4637551 -1.75 6.4828434
-1.999902 -1.75 6.4846315
-1.983288 -1.75 6.4814205
-1.6591548 -1.75 6.481885
-1.56231 -1.75 6.4873357
0.23010561 -1.75 6.4835005
2.5592597 -1.75 6.4850578
2.9000001 -1.7328035 6.4845924
2.9000001 -1.0508689 6.4859328
-2.9000001 -0.97892779 6.484859
-2.9000001 -0.71582645 6.4819899
-2.2360592 -0.25 6.482338
-2.1844451 -0.25 6.4854321
1.9735906 -0.25 6.4844561
1.3701749 -0.17968316 6.4874029
-1.3717492 0.34814084 6.4803901
1.3714787 0.96568149 6.481595
-1.3705579 1.5440161 6.4856963
-0.41254145 1.75 6.4801402
-0.22144261 1.75 6.4823365
-0.11040104 1.75 6.4811015
1.3184289 1.75 6.4800358
-1.1763893 -4.4499998 6.4925947
1.7254245 -4.4499998 6.4944329
2.0190635 -4.4499998 6.493072
-1.3530631 -4.1228437 6.4921527
1.5489621 -3.9943404 6.4990811
-1.3521867 -3.9389391 6.4951506
-0.35091302 -3.9324591 6.4995079
1.5470045 -3.9202976 6.4923835
-1.3533812 -3.5414748 6.491065
-0.3521291 -3.2787642 6.4953475
2.5490494 -3.0934463 6.4993792
2.5474665 -2.7044477 6.4939637
-0.35202411 -2.6743779 6.4957066
-1.3529454 -2.6618869 6.4925551
2.5468884 -2.4600856 6.4919863
-1.3514887 -2.4009147 6.4975386
2.548197 -2.016844 6.4964633
2.5472474 -1.8819051 6.4932137
-2.8151505 -1.75 6.4992108
-0.19628927 -1.75 6.4994521
0.30293351 -1.75 6.4924502
-2.9000001 -0.7368198 6.4971061
2.9000001 -0.53350776 6.4959793
-1.7997847 -0.25 6.4955287
-1.3810586 -0.25 6.4986038
1.4172628 -0.25 6.4976587
1.5876209 -0.25 6.493175
1.3681856 0.17190228 6.496264
-1.3682892 0.3329035 6.4958029
-1.3673624 0.68393791 6.4999313
1.3694862 0.96510106 6.4904714
-1.3682867 1.4085377 6.4958138
-1.3683937 1.5396101 6.4953375
-1.1150367 1.75 6.490099
-0.14249846 1.75 6.4910636
-0.020521279 1.75 6.494967
0.50287855 1.75 6.4953065
2.4088078 -4.4499998 6.5066385
-1.3495257 -4.2063398 6.5042539
2.5498164 -3.8382919 6.5020022
1.5516987 -3.6080816 6.5084429
2.5493367 -3.3078613 6.5003614
-0.34883106 -3.2061357 6.5066304
1.5515773 -3.1467056 6.508028
-0.34807172 -3.1289468 6.5092282
-0.34986967 -2.6570196 6.503077
-1.349256 -2.6413774 6.5051765
-1.3484275 -2.3116131 6.5080109
1.5518432 -2.2530062 6.5089369
2.5516062 -1.9513083 6.5081253
2.5499253 -1.8335152 6.5023761
-1.5441262 -1.75 6.5016751
-1.4730917 -1.75 6.5070119
-0.33466208 -1.75 6.500484
-0.021677125 -1.75 6.5050859
0.074393116 -1.75 6.5067635
1.4065268 -1.75 6.5075417
-2.9000001 -1.4429564 6.5057597
2.9000001 -1.4008605 6.5086126
2.9000001 -1.2984625 6.5035205
2.9000001 -0.63357306 6.5071607
2.9000001 -0.55188793 6.5078378
2.9000001 -0.462596 6.5091376
-2.4958742 -0.25 6.5023227
-2.3967974 -0.25 6.5035906
-2.0740094 -0.25 6.5083222
-2.0039961 -0.25 6.5011134
1.9905952 -0.25 6.5014458
2.8211992 -0.25 6.5054846
1.3665283 -0.19365519 6.5036469
1.3673316 0.23605922 6.5000682
-1.3668823 0.87727332 6.50207
-1.3662401 0.9534272 6.50493
1.3666068 1.4870702 6.5032969
-1.3654014 1.5321603 6.508667
1.366586 1.5761374 6.5033898
-0.82628876 1.75 6.503315
0.11178102 1.75 6.5048885
0.26460999 1.75 6.5017457
0.49182874 1.75 6.5064564
1.043646 1.75 6.5059776
1.0902681 1.75 6.5088558
-0.56009889 -4.4499998 6.5159292
-0.45511094 -4.4499998 6.5111418
-0.34540981 -4.3222332 6.5183344
-1.3455716 -4.1129107 6.5177813
2.5533404 -4.0463271 6.5140591
1.5543983 -3.9442794 6.5176783
-1.3461907 -3.8886185 6.5156636
-1.3476994 -3.7243674 6.5105009
-1.3456086 -3.5338352 6.5176544
-0.34684503 -3.3191597 6.5134249
2.5548961 -2.7785697 6.519381
2.5529218 -2.6164851 6.5126262
-0.34756517 -2.5098855 6.5109611
-1.345715 -2.4492395 6.5172906
1.5543406 -2.3127191 6.5174809
-2.2272923 -1.75 6.5185561
-1.3779117 -1.75 6.51406
-1.3603029 -1.75 6.5196133
-0.048946224 -1.75 6.519866
0.0039506266 -1.75 6.5167389
0.16525649 -1.75 6.5138969
0.67044431 -1.75 6.5159435
2.9000001 -1.7393631 6.5120244
-2.9000001 -1.6260844 6.5147243
-2.9000001 -1.4806092 6.5138969
2.9000001 -1.4576908 6.5183387
2.9000001 -1.1743618 6.5131044
-2.9000001 -1.0899627 6.5156794
2.9000001 -1.0798292 6.512321
-2.9000001 -0.99801993 6.5174403
2.9000001 -0.26490405 6.5125971
-2.0484138 -0.25 6.5115166
-1.6466122 -0.25 6.5146585
-1.4445152 -0.25 6.5195265
2.6053591 -0.25 6.516748
2.746551 -0.25 6.5172839
1.3634685 -0.0079440624 6.5172763
1.3637341 0.38828719 6.5160933
1.3631629 0.47583446 6.5186377
1.3647567 1.0497652 6.511538
-1.3643298 1.241475 6.5134401
1.3647379 1.378083 6.5116224
-1.3312036 1.75 6.5132861
-1.2468576 1.75 6.5143185
-0.84521115 1.75 6.5123043
-0.46886933 1.75 6.5155163
0.86015892 1.75 6.515532
1.2564614 1.75 6.5104613
-1.0894451 -4.4499998 6.5248628
-0.70366395 -4.4499998 6.5267849
1.6371753 -4.4499998 6.5223036
-1.3445834 -4.2544179 6.521162
1.5565242 -3.8456249 6.524951
-1.3422062 -3.4227216 6.5292945
-0.34414357 -3.4133797 6.5226665
2.5550799 -3.3678508 6.5200105
1.5564442 -2.8953242 6.5246773
1.5568068 -2.6862531 6.525918
-0.34400803 -2.5945301 6.5231304
-1.3439896 -2.5473614 6.5231934
-0.34213319 -2.4466002 6.5295439
-1.3428091 -2.2433808 6.5272322
-0.34329292 -2.1799796 6.5255766
-1.3435886 -1.9517331 6.5245657
2.5555153 -1.926387 6.5214992
1.5552269 -1.9103208 6.5205131
2.5555859 -1.9141597 6.5217409
2.555356 -1.7783443 6.5209541
-2.1661551 -1.75 6.5255713
-1.5154986 -1.75 6.5222416
-0.19216673 -1.75 6.5214391
0.66474307 -1.75 6.5289922
0.98490012 -1.75 6.5272055
2.9000001 -1.4457046 6.5254207
2.9000001 -1.3740369 6.5281801
2.9000001 -1.122613 6.527945
-2.9000001 -0.6413613 6.5291724
-2.9000001 -0.47822237 6.5202341
-1.4564804 -0.25 6.5200219
1.3609368 -0.24152757 6.5285544
1.6100726 -0.25 6.5289483
1.7957797 -0.25 6.5218525
2.4836452 -0.25 6.524343
2.671315 -0.25 6.5225201
1.3613135 0.078668118 6.5268769
1.3627808 0.1284879 6.5203404
-1.3607061 0.14228463 6.5295815
-1.362695 0.39596128 6.5207229
-1.3625809 1.1991768 6.5212312
-1.3627844 1.3099959 6.5203247
1.3607526 1.3403512 6.5293751
-0.66691124 1.75 6.5249643
-1.1497706 -4.4499998 6.5370197
-0.72989905 -4.4499998 6.5310001
-0.46817181 -4.4499998 6.5368128
1.6236427 -4.4499998 6.5389123
1.8300865 -4.4499998 6.5356855
-1.3400739 -3.9701405 6.5365896
2.5583286 -3.8901 6.5311236
-1.3416176 -3.8745391 6.5313082
2.5586586 -3.6188829 6.5322533
-0.3413367 -3.4724729 6.532269
-1.3415025 -3.3558884 6.5317016
2.5608354 -3.2537093 6.5396991
2.5604124 -3.1919761 6.5382528
2.5602908 -2.9488018 6.5378375
-0.33962768 -2.937268 6.538116
-0.33981669 -2.9164898 6.5374694
-0.34135348 -2.8937628 6.5322118
1.5600488 -2.8189673 6.5370088
-0.34104499 -2.7491095 6.5332665
-0.34047908 -2.3705411 6.535203
-1.3393991 -2.2511048 6.5388975
1.5583231 -2.2265513 6.5311055
1.5607318 -2.1910441 6.5393453
2.5599875 -2.0388184 6.5367994
1.5587263 -1.8835896 6.5324845
-1.3413889 -1.8433006 6.5320907
2.5583858 -1.7559633 6.5313196
0.32003891 -1.75 6.5361886
2.7247496 -1.75 6.5379057
-2.9000001 -1.3897524 6.5397906
-2.9000001 -0.59222734 6.5371222
-2.9000001 -0.44859439 6.5373945
-2.9000001 -0.40322208 6.5320611
1.4546559 -0.25 6.5304394
2.4560235 -0.25 6.5344348
-1.3603526 0.34438324 6.5311561
1.3590844 0.7686097 6.5368056
-1.3596557 0.91600525 6.5342607
-1.3592142 1.5636967 6.5362277
-1.3391076 1.75 6.5394111
-1.0010871 1.75 6.5391107
-0.28701359 1.75 6.5355763
0.91622311 1.75 6.5383039
-0.83397704 -4.4499998 6.5441518
1.7078385 -4.4499998 6.5487051
1.9738606 -4.4499998 6.5424676
2.5573955 -4.4499998 6.5402145
1.561707 -4.4154797 6.5426817
1.5637916 -4.2477956 6.5498137
-1.3376844 -4.0295959 6.544764
2.5621977 -4.00314 6.5443592
2.5630398 -3.8847661 6.5472407
1.5609862 -3.8604939 6.5402155
-1.3378191 -3.7337055 6.5443025
-1.3370795 -3.5936229 6.5468335
-0.3362087 -3.3207519 6.5498118
-0.33737072 -3.319144 6.5458364
1.5614878 -3.0235238 6.5419321
-1.3364987 -2.8899899 6.54882
2.5621033 -2.6141503 6.5440378
1.5627728 -2.4410505 6.5463276
-1.3371582 -2.3640313 6.5465636
-1.3363364 -2.1316028 6.5493755
1.5637994 -1.8984027 6.54984
-2.3942285 -1.75 6.5449696
-0.32924765 -1.75 6.5445004
0.6695385 -1.75 6.5422878
1.189521 -1.75 6.5485115
1.2013229 -1.75 6.5410938
1.2216897 -1.75 6.5440578
1.2669003 -1.75 6.5480728
-2.9000001 -0.3205235 6.5439682
2.9000001 -0.28112462 6.5430431
-2.8544669 -0.25 6.5443058
-1.5033572 -0.25 6.549294
1.541205 -0.25 6.5467062
2.2591844 -0.25 6.5415788
2.5278111 -0.25 6.5446439
-1.3581589 -0.1758064 6.5409288
-1.3578982 -0.0084530115 6.5420904
1.3566847 0.12418155 6.5474954
1.3574035 0.14801103 6.5442929
1.3579103 0.68111074 6.5420361
-1.3566923 0.7413733 6.5474615
-1.3562104 1.1312773 6.5496087
1.3578638 1.38696 6.5422435
-0.57916129 1.75 6.5481668
0.17864826 1.75 6.5438609
0.69416225 1.75 6.541286
0.92880046 1.75 6.5445333
1.3487532 1.75 6.541193
-1.2957156 -4.4499998 6.5546694
-0.94549239 -4.4499998 6.5506859
1.7824802 -4.4499998 6.5587192
-1.3336856 -4.3942952 6.558444
1.5667481 -4.2649045 6.5599279
1.5658494 -4.1068449 6.5568533
1.5648358 -3.593097 6.5533853
1.564199 -3.5521462 6.5512071
1.5665156 -3.4658656 6.5591321
2.5660899 -3.420233 6.5576758
-1.3356007 -3.4142189 6.5518923
1.5664806 -3.2032442 6.5590129
-1.3347449 -3.1701791 6.5548196
1.565957 -3.1665614 6.5572209
1.5648689 -3.003917 6.5534987
2.5643902 -2.4951584 6.5518599
-1.3352076 -2.4781871 6.553237
-0.33341348 -2.4534447 6.5593748
-1.3342692 -2.1672897 6.5564475
2.5654683 -2.0838754 6.5555491
-0.33536491 -2.046586 6.5526986
-0.33420038 -1.9429435 6.5566831
-1.3350613 -1.8584689 6.5537376
-1.3341849 -1.8457623 6.5567355
1.565888 -1.8099738 6.5569854
-2.8273771 -1.75 6.5589957
-2.2734962 -1.75 6.552875
-2.0796556 -1.75 6.5571232
-0.12492929 -1.75 6.5538049
0.1129447 -1.75 6.5587916
0.71708494 -1.75 6.5582643
0.90373176 -1.75 6.5566154
-2.9000001 -1.6066011 6.5556097
2.9000001 -1.573915 6.5546231
2.9000001 -1.1631131 6.5556231
-2.9000001 -0.61026883 6.5563402
-2.9000001 -0.56109202 6.5556474
-2.9000001 -0.52490389 6.5552473
-2.4911993 -0.25 6.5550194
-2.254287 -0.25 6.5527039
1.5736045 -0.25 6.5519238
1.5858011 -0.25 6.5509911
2.3894808 -0.25 6.5587835
-1.3548639 -0.17848623 6.5556073
1.3559397 -0.047774889 6.5508142
1.3543856 0.091256492 6.5577369
-1.3548251 0.2490164 6.5557785
-1.3553493 0.31269145 6.5534439
-1.3553828 0.41598141 6.5532951
1.3540154 1.1193813 6.5593863
-1.3547093 1.1318512 6.5562949
-1.3539948 1.3233178 6.5594773
-1.3546201 1.4020293 6.5566921
-1.3552388 1.6257268 6.5539365
-1.039341 1.75 6.5522246
-0.53555721 1.75 6.5580354
-0.35208651 1.75 6.5511627
0.16514596 1.75 6.5577693
-1.1623509 -4.4499998 6.5668035
-1.0912241 -4.4499998 6.5633845
2.4825563 -4.4499998 6.5672212
1.5692288 -4.4037781 6.5684147
2.5680046 -4.3165588 6.5642262
-1.3304894 -4.2745342 6.5693789
-1.3330996 -4.253582 6.5604491
1.568081 -4.2203474 6.5644884
-0.33294407 -4.0750771 6.5609808
-1.3316202 -3.9582024 6.5655098
-1.3303804 -3.9065957 6.5697508
-0.33260092 -3.6062531 6.5621548
2.5685949 -3.4317038 6.5662451
2.5692601 -3.3946047 6.568521
1.5683357 -3.2716196 6.5653586
2.5670829 -3.1757679 6.5610723
-1.3330904 -3.0272315 6.5604801
-1.3309189 -2.939981 6.5679088
2.5696254 -2.9273329 6.5697699
-0.33240116 -2.8572562 6.5628381
-1.3303866 -2.8379159 6.5697303
-1.3315296 -2.6628134 6.5658193
1.567854 -2.6699629 6.5637112
-1.3312266 -2.5654328 6.5668564
-0.33060139 -2.5161765 6.568995
2.569006 -2.300885 6.5676513
1.568886 -2.2927263 6.5672417
1.5688055 -2.2830303 6.5669661
1.5675938 -2.2555716 6.5628209
-1.3304986 -2.2179847 6.5693469
1.5691448 -2.1561801 6.5681272
-1.7623897 -1.75 6.564394
-1.6774582 -1.75 6.5693254
-0.03517114 -1.75 6.5640368
0.14407247 -1.75 6.5600009
0.83563185 -1.75 6.5685644
1.5075763 -1.75 6.5688243
2.9000001 -1.7307839 6.5655503
2.9000001 -1.6164498 6.5648837
2.9000001 -1.3161405 6.5646806
2.9000001 -1.2796841 6.5644603
-2.9000001 -1.0656873 6.566999
2.9000001 -0.50002927 6.5649862
1.8638144 -0.25 6.5604906
2.3531194 -0.25 6.5652304
1.352192 0.05552239 6.5675077
1.351934 0.36257645 6.5686579
1.3532513 0.68152523 6.5627894
-1.352312 0.73983634 6.5669737
1.3517329 1.1519859 6.5695529
-1.3528872 1.3361566 6.5644121
1.3519894 1.6261684 6.5684109
-1.1462246 1.75 6.567338
-1.0153922 1.75 6.5660505
-0.74705398 1.75 6.5697598
-0.36911991 1.75 6.5649958
-0.15929274 1.75 6.5605526
0.54697585 1.75 6.5637074
1.0052644 1.75 6.5600209
-0.77727741 -4.4499998 6.5736423
-0.68254614 -4.4499998 6.5717163
2.5573084 -4.4499998 6.5766821
-1.3301487 -4.3214116 6.5705438
-1.3294495 -3.9899745 6.5729351
1.5717738 -3.9784534 6.5771208
-0.32879984 -3.9366896 6.5751581
-1.3301911 -3.4332094 6.5703983
-1.3297727 -3.2864015 6.5718298
-0.32950267 -3.2427664 6.5727534
-0.32759452 -3.069577 6.5792818
-1.3289309 -2.6305358 6.5747099
-0.32789588 -2.4239528 6.5782509
1.571207 -2.3248477 6.575182
1.5701927 -2.2939029 6.5717115
-1.3301768 -2.0436416 6.5704479
-2.5609565 -1.75 6.5744925
-2.3463187 -1.75 6.5747051
-1.9485307 -1.75 6.5734129
-1.6599712 -1.75 6.5742693
-1.6082709 -1.75 6.57933
1.1918445 -1.75 6.5751266
2.6982489 -1.75 6.5731688
-2.9000001 -1.6900412 6.5732088
2.9000001 -1.2847764 6.5722294
-2.9000001 -0.79638666 6.5742135
-2.9000001 -0.35779843 6.5734067
-2.823812 -0.25 6.5782623
-2.7951555 -0.25 6.579855
-2.5007479 -0.25 6.5700703
-2.1125019 -0.25 6.5715685
-1.9727479 -0.25 6.572681
1.5588373 -0.25 6.5747156
-1.3508571 -0.048059702 6.5734549
1.3496766 0.65290236 6.5787134
1.3514155 0.8350473 6.5709672
1.3514463 1.7121235 6.5708303
-0.90175569 1.75 6.5706868
0.078093261 1.75 6.5732651
0.51933938 1.75 6.5751014
1.2486676 1.75 6.5734181
1.8400993 -4.4499998 6.5890613
2.1780372 -4.4499998 6.5826955
-1.3255594 -4.195497 6.5862441
2.5752561 -3.8688707 6.5890341
1.5755262 -3.7954414 6.5899582
2.5726347 -3.7504284 6.5800653
1.5726584 -3.7106009 6.5801468
1.5743188 -3.2836683 6.5858274
1.573779 -2.8056982 6.5839806
-1.3252978 -2.7789619 6.5871387
-0.32533216 -2.5835667 6.5870218
1.573855 -2.5873873 6.5842409
2.5738206 -2.4231668 6.5841227
-0.32483363 -2.2290552 6.588727
-0.3270762 -2.2160764 6.5810552
1.5739471 -2.0703654 6.5845556
-2.3862026 -1.75 6.5897045
-1.44028 -1.75 6.5882149
0.11500189 -1.75 6.589138
0.46275097 -1.75 6.5841131
0.79391176 -1.75 6.5862403
1.5402123 -1.75 6.5823855
-2.9000001 -1.5939329 6.5824652
-2.9000001 -1.3343089 6.5863385
2.9000001 -1.2455115 6.5807915
-2.9000001 -0.90026981 6.5829463
-2.9000001 -0.80052632 6.5844531
-2.9000001 -0.25256073 6.5852394
-2.2957497 -0.25 6.5899615
-2.0522983 -0.25 6.5888667
-1.8504977 -0.25 6.5807862
-1.4863844 -0.25 6.5860763
2.5483894 -0.25 6.5894752
1.3492249 0.088702828 6.5807257
-1.348979 0.31967533 6.581821
-1.3474011 1.2453165 6.5888495
1.3482713 1.7388787 6.5849733
-1.3264216 1.75 6.5852532
-1.0316863 1.75 6.5858274
0.07111536 1.75 6.5821443
0.20014985 1.75 6.5816207
0.57873183 1.75 6.5802026
0.74743015 1.75 6.5882697
-1.0074033 -4.4499998 6.5996466
-0.94809997 -4.4499998 6.5913277
-0.48810643 -4.4499998 6.5946522
-0.32224059 -4.4335585 6.5975976
2.5755749 -4.2062531 6.5901246
-0.32257569 -3.982569 6.5964513
2.576581 -3.4830117 6.5935659
2.5768232 -3.4550662 6.5943956
-1.322366 -3.3615842 6.5971689
